ply
format ascii 1.0
comment Boundary vertices
element vertex 1405
property float x
property float y
property float z
property uchar red
property uchar green
property uchar blue
end_header
-2.1409 -11.297 -2.7957e-05 255 0 0
-0.72146 -11.375 -3.038e-05 255 0 0
-5.9232 -11.177 -1.9842e-05 255 0 0
-5.325 -11.171 -1.7653e-05 255 0 0
-4.7255 -11.17 -2.495e-05 255 0 0
-4.5785 -11.17 -2.4772e-05 255 0 0
-2.2831 -11.136 -2.7164e-05 255 0 0
-0.99325 -11.203 -2.9442e-05 255 0 0
-0.88589 -11.242 -2.9822e-05 255 0 0
-5.9248 -11.026 -2.0036e-05 255 0 0
-5.3228 -11.024 -1.7518e-05 255 0 0
-4.7269 -11.022 -2.4591e-05 255 0 0
-2.4256 -10.975 -2.6355e-05 255 0 0
-1.1452 -11.071 -2.9879e-05 255 0 0
-5.3243 -10.874 -1.7812e-05 255 0 0
-4.7241 -10.876 -2.4226e-05 255 0 0
-4.5741 -10.875 -2.405e-05 255 0 0
-2.5649 -10.819 -2.5553e-05 255 0 0
-1.3199 -10.93 -2.9385e-05 255 0 0
-5.7744 -10.724 -1.963e-05 255 0 0
-4.5761 -10.723 -2.3669e-05 255 0 0
-2.7033 -10.66 -2.4736e-05 255 0 0
-1.4935 -10.791 -2.861e-05 255 0 0
-5.7676 -10.578 -1.8942e-05 255 0 0
-5.3253 -10.573 -1.791e-05 255 0 0
-4.725 -10.571 -2.3482e-05 255 0 0
-4.5742 -10.571 -2.3301e-05 255 0 0
-2.0264 -10.574 -2.6551e-05 255 0 0
-1.8802 -10.578 -2.7005e-05 255 0 0
-1.7549 -10.618 -2.7481e-05 255 0 0
-5.9238 -10.423 -1.1511e-05 255 0 0
-5.1741 -10.422 -1.7311e-05 255 0 0
-4.7264 -10.422 -2.3126e-05 255 0 0
-4.5753 -10.421 -2.2938e-05 255 0 0
-4.4265 -10.422 -2.2765e-05 255 0 0
-2.8917 -10.397 -2.357e-05 255 0 0
-2.627 -10.423 -2.4365e-05 255 0 0
-2.4772 -10.424 -2.4828e-05 255 0 0
-2.3272 -10.423 -2.5262e-05 255 0 0
-2.1761 -10.424 -2.5698e-05 255 0 0
-2.0367 -10.438 -2.6169e-05 255 0 0
-1.9249 -10.478 -2.657e-05 255 0 0
-5.9231 -10.273 -1.1547e-05 255 0 0
-5.1811 -10.286 -1.7631e-05 255 0 0
-5.0277 -10.287 -2.2553e-05 255 0 0
-4.1251 -10.27 -2.2032e-05 255 0 0
-3.5914 -10.271 -2.1334e-05 255 0 0
-3.0331 -10.237 -2.2749e-05 255 0 0
-2.1953 -10.302 -2.5349e-05 255 0 0
-2.0959 -10.34 -2.5809e-05 255 0 0
-5.7727 -10.123 -1.1631e-05 255 0 0
-5.2366 -10.186 -1.1662e-05 255 0 0
-3.9599 -10.199 -2.1636e-05 255 0 0
-3.8073 -10.194 -2.1217e-05 255 0 0
-3.6604 -10.147 -2.076e-05 255 0 0
-3.1733 -10.079 -2.1983e-05 255 0 0
-3.0721 -10.118 -2.2322e-05 255 0 0
-2.7771 -10.124 -2.3239e-05 255 0 0
-2.4766 -10.124 -2.4108e-05 255 0 0
-2.3641 -10.135 -2.4422e-05 255 0 0
2.7811 -10.063 -3.4906e-05 255 0 0
2.9215 -10.078 -3.5008e-05 255 0 0
3.0683 -10.094 -3.5218e-05 255 0 0
-12.072 -9.9433 -1.1086e-05 255 0 0
-11.915 -9.9398 -2.0576e-05 255 0 0
-11.771 -9.9257 -2.1565e-05 255 0 0
-6.741 -9.9054 -5.6982e-06 255 0 0
-5.7727 -9.9735 -1.1668e-05 255 0 0
-5.3875 -10.036 -1.166e-05 255 0 0
-3.6101 -10.041 -2.0532e-05 255 0 0
-2.4771 -9.9724 -2.3754e-05 255 0 0
2.4753 -9.957 -3.4158e-05 255 0 0
2.6266 -9.9716 -3.4441e-05 255 0 0
3.5182 -9.9616 -3.6508e-05 255 0 0
-11.813 -9.8885 -1.1146e-05 255 0 0
-11.623 -9.8807 -1.9054e-05 255 0 0
-11.47 -9.8453 -2.5909e-05 255 0 0
-11.165 -9.8353 -2.4783e-05 255 0 0
-11.02 -9.8282 -2.4956e-05 255 0 0
-10.873 -9.8234 -2.5186e-05 255 0 0
-10.723 -9.8238 -2.5671e-05 255 0 0
-10.574 -9.8251 -2.5002e-05 255 0 0
-10.425 -9.8245 -2.564e-05 255 0 0
-10.275 -9.8236 -2.5216e-05 255 0 0
-10.127 -9.8236 -2.5719e-05 255 0 0
-9.9753 -9.8251 -2.5843e-05 255 0 0
-9.8234 -9.8235 -2.5564e-05 255 0 0
-9.6734 -9.8243 -2.5791e-05 255 0 0
-9.5217 -9.8257 -2.5739e-05 255 0 0
-9.3722 -9.8234 -2.5687e-05 255 0 0
-9.0749 -9.8289 -2.3943e-05 255 0 0
-8.9235 -9.8252 -2.4069e-05 255 0 0
-8.775 -9.8239 -2.379e-05 255 0 0
-8.6395 -9.8228 -1.5311e-05 255 0 0
-8.4758 -9.8252 -1.1477e-05 255 0 0
-8.3237 -9.8247 -1.1493e-05 255 0 0
-5.6382 -9.8384 -1.1717e-05 255 0 0
-5.537 -9.8873 -1.1674e-05 255 0 0
-3.4601 -9.8902 -2.0631e-05 255 0 0
-3.3601 -9.8402 -2.0787e-05 255 0 0
-2.9273 -9.8225 -2.2057e-05 255 0 0
-2.1766 -9.8241 -2.4222e-05 255 0 0
-2.0269 -9.8243 -2.4634e-05 255 0 0
-1.8774 -9.8247 -2.5067e-05 255 0 0
-1.7271 -9.8242 -2.5502e-05 255 0 0
-1.5769 -9.8244 -2.5967e-05 255 0 0
-1.4269 -9.8241 -2.642e-05 255 0 0
-1.2775 -9.8234 -2.6849e-05 255 0 0
-1.1272 -9.8247 -2.7335e-05 255 0 0
-0.97596 -9.8233 -2.7701e-05 255 0 0
-0.8249 -9.8236 -2.8183e-05 255 0 0
-0.6772 -9.8229 -2.8523e-05 255 0 0
-0.52786 -9.8236 -2.9024e-05 255 0 0
-0.3744 -9.8239 -2.9477e-05 255 0 0
-0.22524 -9.8242 -2.9977e-05 255 0 0
-0.077467 -9.8218 -3.0371e-05 255 0 0
0.3741 -9.8233 -2.9939e-05 255 0 0
0.5235 -9.8236 -3.0304e-05 255 0 0
0.67526 -9.8251 -3.0648e-05 255 0 0
0.82338 -9.8229 -3.0889e-05 255 0 0
0.97195 -9.8241 -3.118e-05 255 0 0
1.1237 -9.8232 -3.1547e-05 255 0 0
1.2728 -9.8233 -3.1763e-05 255 0 0
1.4229 -9.8238 -3.2102e-05 255 0 0
1.5738 -9.8237 -3.2376e-05 255 0 0
1.7249 -9.8249 -3.2706e-05 255 0 0
1.8742 -9.8211 -3.3084e-05 255 0 0
2.0263 -9.8241 -3.345e-05 255 0 0
2.1766 -9.8243 -3.3555e-05 255 0 0
2.3234 -9.8257 -3.383e-05 255 0 0
2.6253 -9.8387 -3.4212e-05 255 0 0
2.9247 -9.8648 -3.5133e-05 255 0 0
3.0704 -9.8771 -3.5803e-05 255 0 0
3.2152 -9.8827 -3.8242e-05 255 0 0
3.3216 -9.8949 -3.8624e-05 255 0 0
-8.3237 -9.6737 -1.1527e-05 255 0 0
-5.6879 -9.7377 -1.1763e-05 255 0 0
-3.311 -9.7397 -2.069e-05 255 0 0
-3.0768 -9.6729 -2.1216e-05 255 0 0
-2.4768 -9.6732 -2.2966e-05 255 0 0
-2.3273 -9.6735 -2.3417e-05 255 0 0
0.67345 -9.6731 -3.04e-05 255 0 0
0.9751 -9.6751 -3.0931e-05 255 0 0
1.2762 -9.6746 -3.1647e-05 255 0 0
1.425 -9.674 -3.1862e-05 255 0 0
1.5727 -9.6759 -3.2112e-05 255 0 0
2.0148 -9.712 -3.2874e-05 255 0 0
2.1639 -9.7236 -3.323e-05 255 0 0
2.3083 -9.735 -3.3349e-05 255 0 0
2.4336 -9.745 -3.3975e-05 255 0 0
-8.1682 -9.5246 -6.8639e-06 255 0 0
-8.0203 -9.524 -7.1912e-06 255 0 0
-7.8705 -9.5231 -6.8472e-06 255 0 0
-5.8389 -9.5883 -1.1761e-05 255 0 0
-3.1609 -9.5893 -2.0749e-05 255 0 0
-3.0609 -9.5392 -2.0926e-05 255 0 0
0.0743 -9.5248 -3.0076e-05 255 0 0
0.38954 -9.5383 -3.0218e-05 255 0 0
0.52568 -9.5267 -2.9747e-05 255 0 0
0.82079 -9.5365 -3.0371e-05 255 0 0
1.1201 -9.5604 -3.0746e-05 255 0 0
-8.3242 -9.3742 -1.162e-05 255 0 0
-8.1694 -9.3744 -7.1892e-06 255 0 0
-7.8721 -9.3739 -7.3299e-06 255 0 0
-7.7209 -9.3743 -7.552e-06 255 0 0
-7.5704 -9.3745 -7.4517e-06 255 0 0
-7.4209 -9.3742 -7.8284e-06 255 0 0
-7.2731 -9.3737 -7.8979e-06 255 0 0
-7.1224 -9.3743 -7.9476e-06 255 0 0
-5.9893 -9.439 -1.1761e-05 255 0 0
-3.0121 -9.4381 -2.0799e-05 255 0 0
-1.2763 -9.3745 -2.5684e-05 255 0 0
-0.67572 -9.3736 -2.7493e-05 255 0 0
-0.52554 -9.3741 -2.7955e-05 255 0 0
-0.37558 -9.3745 -2.8414e-05 255 0 0
-0.22718 -9.3785 -2.8828e-05 255 0 0
-0.077128 -9.3923 -2.9286e-05 255 0 0
0.069651 -9.4072 -2.9771e-05 255 0 0
-8.771 -9.2253 -3.0656e-05 255 0 0
-7.4223 -9.2244 -8.1458e-06 255 0 0
-7.2735 -9.2238 -8.1979e-06 255 0 0
-7.123 -9.2238 -8.2231e-06 255 0 0
-6.9727 -9.224 -8.344e-06 255 0 0
-6.8231 -9.224 -8.5085e-06 255 0 0
-6.6726 -9.2238 -8.545e-06 255 0 0
-6.5227 -9.2236 -8.7556e-06 255 0 0
-6.3735 -9.2239 -8.8084e-06 255 0 0
-6.2422 -9.2324 -8.7774e-06 255 0 0
-6.1398 -9.2902 -1.1787e-05 255 0 0
-2.8628 -9.2881 -2.0832e-05 255 0 0
-2.7616 -9.2383 -2.1037e-05 255 0 0
-1.5776 -9.2235 -2.4468e-05 255 0 0
-1.4265 -9.2229 -2.4872e-05 255 0 0
-1.277 -9.2239 -2.5333e-05 255 0 0
-1.1292 -9.227 -2.575e-05 255 0 0
-0.97776 -9.2393 -2.6277e-05 255 0 0
-0.82899 -9.2541 -2.6749e-05 255 0 0
-0.68289 -9.265 -2.7233e-05 255 0 0
-8.9211 -9.0745 -3.069e-05 255 0 0
-6.2447 -9.0767 -6.1736e-06 255 0 0
-2.3274 -9.0728 -2.1951e-05 255 0 0
-2.1774 -9.0731 -2.2366e-05 255 0 0
-2.0283 -9.0748 -2.2822e-05 255 0 0
-1.8797 -9.0872 -2.3296e-05 255 0 0
-1.7301 -9.1003 -2.3717e-05 255 0 0
-11.552 -8.8983 -3.0994e-05 255 0 0
-11.478 -8.9357 -3.1193e-05 255 0 0
-8.9249 -8.9241 -3.0686e-05 255 0 0
-8.0286 -8.9255 -6.8825e-07 255 0 0
-7.8796 -8.9246 -1.1218e-06 255 0 0
-7.7277 -8.9248 -1.5883e-06 255 0 0
-7.5772 -8.9249 -1.9881e-06 255 0 0
-11.555 -8.7748 -3.0994e-05 255 0 0
-11.473 -8.7808 -3.1233e-05 255 0 0
-8.9301 -8.7745 -3.0745e-05 255 0 0
-8.178 -8.7754 -3.0091e-07 255 0 0
-8.0331 -8.7753 -6.9849e-07 255 0 0
-7.7318 -8.7741 -1.5863e-06 255 0 0
-7.5802 -8.7755 -1.9886e-06 255 0 0
-7.4226 -8.772 -2.4373e-06 255 0 0
-7.1159 -8.7755 -3.3584e-06 255 0 0
-11.559 -8.6324 -3.1233e-05 255 0 0
-11.477 -8.6306 -3.1233e-05 255 0 0
-8.7864 -8.6256 -3.0783e-05 255 0 0
-7.2672 -8.6258 -2.9661e-06 255 0 0
-7.1193 -8.6249 -3.3622e-06 255 0 0
-6.9692 -8.6249 -3.7379e-06 255 0 0
-6.2501 -8.625 -6.0831e-06 255 0 0
-11.563 -8.4804 -3.1233e-05 255 0 0
-11.462 -8.4738 -3.1233e-05 255 0 0
-8.9161 -8.4754 -3.0863e-05 255 0 0
-8.7817 -8.4756 -3.0826e-05 255 0 0
-6.9736 -8.4753 -3.7428e-06 255 0 0
-6.8251 -8.4743 -4.1995e-06 255 0 0
-6.2527 -8.4755 -6.1077e-06 255 0 0
-11.567 -8.3285 -3.1233e-05 255 0 0
-11.458 -8.3309 -3.1233e-05 255 0 0
-8.7851 -8.3264 -3.0883e-05 255 0 0
-7.2751 -8.3254 -2.9632e-06 255 0 0
-6.6702 -8.3515 -4.6598e-06 255 0 0
-6.3699 -8.3264 -5.717e-06 255 0 0
-6.2528 -8.3249 -6.1347e-06 255 0 0
-11.571 -8.1765 -3.1233e-05 255 0 0
-11.46 -8.178 -3.1271e-05 255 0 0
-11.154 -8.177 -3.1273e-05 255 0 0
-11.01 -8.175 -3.1303e-05 255 0 0
-8.7902 -8.1895 -3.0932e-05 255 0 0
-8.1929 -8.2119 -3.0956e-07 255 0 0
-8.0321 -8.2187 -7.4235e-07 255 0 0
-7.7187 -8.2326 -1.6604e-06 255 0 0
-7.5737 -8.2382 -2.0787e-06 255 0 0
-7.432 -8.245 -2.4587e-06 255 0 0
-11.575 -8.0245 -3.1233e-05 255 0 0
-11.466 -8.0255 -3.1312e-05 255 0 0
-10.877 -8.0278 -3.1303e-05 255 0 0
-9.2466 -8.0954 -3.0899e-05 255 0 0
-6.2571 -8.0262 -6.1776e-06 255 0 0
-2.4737 -8.0194 -8.8795e-06 255 0 0
-2.3303 -8.0119 -8.8321e-06 255 0 0
-2.1807 -7.9979 -8.7802e-06 255 0 0
-2.0317 -7.9844 -8.712e-06 255 0 0
-11.578 -7.9296 -3.1233e-05 255 0 0
-11.173 -7.9394 -3.1352e-05 255 0 0
-11.04 -7.946 -3.1352e-05 255 0 0
-6.2601 -7.862 -5.7916e-06 255 0 0
-2.7294 -7.8303 -9.0309e-06 255 0 0
-2.6221 -7.8716 -8.9759e-06 255 0 0
-2.4772 -7.8772 -8.9191e-06 255 0 0
-2.0273 -7.8775 -8.7373e-06 255 0 0
-1.8762 -7.8767 -8.6817e-06 255 0 0
-1.5793 -7.869 -8.6358e-06 255 0 0
-1.4297 -7.8556 -8.5179e-06 255 0 0
-1.2805 -7.8423 -8.4561e-06 255 0 0
-6.1145 -7.6879 -5.0202e-06 255 0 0
-2.8804 -7.6803 -9.1506e-06 255 0 0
-2.7722 -7.7222 -9.0763e-06 255 0 0
-2.6271 -7.7265 -9.0112e-06 255 0 0
-1.1263 -7.7269 -8.4321e-06 255 0 0
-0.97612 -7.7266 -8.3822e-06 255 0 0
-0.6795 -7.7141 -8.2654e-06 255 0 0
-0.53082 -7.7002 -8.2457e-06 255 0 0
-5.9665 -7.5349 -4.9657e-06 255 0 0
-3.0303 -7.5306 -9.1681e-06 255 0 0
-2.6272 -7.5768 -9.0543e-06 255 0 0
-0.97617 -7.5767 -8.4025e-06 255 0 0
-0.82637 -7.5754 -8.3413e-06 255 0 0
-0.37768 -7.5766 -8.1641e-06 255 0 0
-0.22703 -7.5771 -8.0632e-06 255 0 0
-0.076132 -7.5771 -8.0173e-06 255 0 0
0.07437 -7.5707 -8.0259e-06 255 0 0
0.22492 -7.5587 -7.9473e-06 255 0 0
0.37281 -7.5434 -7.8976e-06 255 0 0
-5.9264 -7.423 -4.9091e-06 255 0 0
-5.8186 -7.3817 -4.9257e-06 255 0 0
-3.181 -7.3803 -9.2571e-06 255 0 0
0.52385 -7.4257 -2.5944e-06 255 0 0
0.66056 -7.4355 -3.1014e-06 255 0 0
1.4068 -7.3802 -7.4506e-06 255 0 0
1.5538 -7.3634 -7.4208e-06 255 0 0
-5.7777 -7.2718 -4.8575e-06 255 0 0
-5.672 -7.2297 -4.853e-06 255 0 0
-3.3302 -7.2309 -9.3545e-06 255 0 0
-2.6266 -7.2767 -9.0444e-06 255 0 0
-2.4769 -7.2771 -9.0601e-06 255 0 0
-2.3269 -7.2761 -9.0008e-06 255 0 0
-2.1761 -7.2759 -8.9458e-06 255 0 0
-2.0271 -7.2768 -8.8496e-06 255 0 0
-1.8774 -7.2759 -8.7823e-06 255 0 0
-1.7272 -7.2766 -8.7239e-06 255 0 0
-1.576 -7.2756 -8.6455e-06 255 0 0
-1.4259 -7.2774 -8.5788e-06 255 0 0
-1.275 -7.2759 -8.536e-06 255 0 0
-1.127 -7.2764 -8.5275e-06 255 0 0
-0.97739 -7.2774 -8.482e-06 255 0 0
-0.82606 -7.2761 -8.4196e-06 255 0 0
-0.67712 -7.2765 -8.3508e-06 255 0 0
-0.52754 -7.2774 -8.2596e-06 255 0 0
-0.37602 -7.278 -8.215e-06 255 0 0
-0.22497 -7.2748 -8.1395e-06 255 0 0
-0.076356 -7.2765 -8.0789e-06 255 0 0
0.074726 -7.2767 -7.9965e-06 255 0 0
0.241 -7.2611 -4.6301e-06 255 0 0
0.37428 -7.2756 -2.6661e-06 255 0 0
0.51465 -7.2829 -2.8532e-06 255 0 0
0.66701 -7.2808 -6.9837e-06 255 0 0
0.8185 -7.2788 -7.7116e-06 255 0 0
0.97194 -7.2792 -7.6334e-06 255 0 0
1.1287 -7.2732 -7.5927e-06 255 0 0
1.2739 -7.2773 -7.4983e-06 255 0 0
1.4234 -7.2721 -7.4428e-06 255 0 0
1.5736 -7.2771 -7.3832e-06 255 0 0
1.7208 -7.2778 -7.3546e-06 255 0 0
1.8656 -7.258 -7.3798e-06 255 0 0
-5.9231 -7.1277 -4.716e-06 255 0 0
-5.525 -7.0775 -4.7934e-06 255 0 0
-3.47 -7.1016 -9.429e-06 255 0 0
2.629 -7.137 -6.9936e-06 255 0 0
2.7745 -7.1185 -6.9737e-06 255 0 0
2.9159 -7.1065 -6.8545e-06 255 0 0
3.0624 -7.094 -6.8545e-06 255 0 0
-5.3773 -6.9247 -4.7336e-06 255 0 0
-3.6313 -6.9311 -9.5145e-06 255 0 0
-3.5902 -6.9512 -9.5183e-06 255 0 0
-5.186 -6.7768 -6.1842e-06 255 0 0
-5.0247 -6.7761 -6.5952e-06 255 0 0
-4.8774 -6.7753 -6.5863e-06 255 0 0
-4.7253 -6.7761 -6.5736e-06 255 0 0
-4.5746 -6.774 -6.5612e-06 255 0 0
-4.4244 -6.772 -6.547e-06 255 0 0
-4.2781 -6.7712 -6.5182e-06 255 0 0
-4.1252 -6.7719 -6.5064e-06 255 0 0
-3.975 -6.7697 -6.4829e-06 255 0 0
-3.806 -6.7737 -7.8327e-06 255 0 0
-3.6735 -6.8104 -8.8687e-06 255 0 0
-5.0293 -6.672 -6.2533e-06 255 0 0
-4.1258 -6.6785 -6.2993e-06 255 0 0
-5.1739 -6.5284 -5.1801e-06 255 0 0
-4.2751 -6.5287 -5.968e-06 255 0 0
-4.1174 -6.5246 -6.3503e-06 255 0 0
-3.9739 -6.5256 -8.0405e-06 255 0 0
-5.6241 -6.3777 -5.0494e-06 255 0 0
-5.4741 -6.377 -5.0079e-06 255 0 0
-4.4235 -6.3775 -5.6701e-06 255 0 0
-4.2752 -6.3791 -5.6546e-06 255 0 0
-3.976 -6.3774 -8.0436e-06 255 0 0
-5.7743 -6.2288 -4.8824e-06 255 0 0
-5.0389 -6.2294 -4.8661e-06 255 0 0
-4.4242 -6.226 -5.3612e-06 255 0 0
-4.2749 -6.2244 -5.3462e-06 255 0 0
-4.1259 -6.2238 -5.3367e-06 255 0 0
-5.7744 -6.0783 -4.5876e-06 255 0 0
-5.0419 -6.0802 -4.749e-06 255 0 0
-4.4249 -6.0778 -5.0213e-06 255 0 0
-4.2749 -6.076 -4.9942e-06 255 0 0
-4.1235 -6.0756 -4.976e-06 255 0 0
-3.9632 -6.0805 -7.3548e-06 255 0 0
-5.9244 -5.9273 -4.4207e-06 255 0 0
-4.2765 -5.9288 -4.7031e-06 255 0 0
-4.1247 -5.9311 -4.6835e-06 255 0 0
-6.074 -5.7756 -4.1876e-06 255 0 0
-5.9248 -5.7749 -4.1677e-06 255 0 0
-4.1251 -5.7792 -4.4076e-06 255 0 0
-3.9589 -5.7803 -6.0777e-06 255 0 0
-5.9264 -5.6274 -3.9294e-06 255 0 0
-4.1274 -5.6275 -4.056e-06 255 0 0
-6.0746 -5.4765 -3.6945e-06 255 0 0
-5.9234 -5.48 -3.7227e-06 255 0 0
-6.0743 -5.3282 -3.5006e-06 255 0 0
-5.9241 -5.3272 -3.5122e-06 255 0 0
-6.0745 -5.1716 -3.2727e-06 255 0 0
-5.9239 -5.1706 -3.302e-06 255 0 0
-4.1252 -5.1716 -3.0774e-06 255 0 0
-6.0749 -5.024 -3.06e-06 255 0 0
-5.9238 -5.022 -3.0801e-06 255 0 0
-4.1245 -5.0283 -2.7644e-06 255 0 0
-6.0739 -4.8777 -2.862e-06 255 0 0
-5.9239 -4.8763 -2.9005e-06 255 0 0
-3.9746 -4.8872 -2.4504e-06 255 0 0
-3.807 -4.8854 -4.7795e-06 255 0 0
-3.6744 -4.8783 -7.0035e-06 255 0 0
-3.5745 -4.8696 -6.7689e-06 255 0 0
-5.9234 -4.7254 -2.6754e-06 255 0 0
-5.7745 -4.7237 -2.7218e-06 255 0 0
-5.6247 -4.7232 -2.7531e-06 255 0 0
-5.4746 -4.723 -2.8027e-06 255 0 0
-5.3406 -4.7217 -2.6827e-06 255 0 0
-5.1754 -4.7134 -2.1995e-06 255 0 0
-5.0287 -4.7226 -2.265e-06 255 0 0
-4.8736 -4.7286 -2.265e-06 255 0 0
-4.7247 -4.7275 -2.227e-06 255 0 0
-4.5759 -4.7246 -2.2027e-06 255 0 0
-4.4227 -4.7259 -2.1749e-06 255 0 0
-4.125 -4.7391 -2.1629e-06 255 0 0
-3.6738 -4.7285 -6.7397e-06 255 0 0
-3.5564 -4.7226 -6.5982e-06 255 0 0
-5.774 -4.5751 -2.5867e-06 255 0 0
-5.6231 -4.5757 -2.6358e-06 255 0 0
-5.4752 -4.5749 -2.6782e-06 255 0 0
-5.3451 -4.5751 -2.4113e-06 255 0 0
-5.1745 -4.5654 -1.8672e-06 255 0 0
-5.0197 -4.58 -1.9177e-06 255 0 0
-4.8742 -4.5845 -1.9084e-06 255 0 0
-4.5757 -4.5808 -1.8802e-06 255 0 0
-4.4257 -4.5792 -1.8262e-06 255 0 0
-4.1246 -4.574 -1.7891e-06 255 0 0
-3.4391 -4.3958 -4.2253e-06 255 0 0
-3.4106 -4.2535 -1.3667e-05 255 0 0
-8.2869 -4.0923 -5.3589e-05 255 0 0
-8.1736 -4.1247 -5.2923e-05 255 0 0
-8.0829 -4.1205 -5.2625e-05 255 0 0
-4.2761 -4.1255 -2.0929e-05 255 0 0
-4.1251 -4.1235 -2.1075e-05 255 0 0
-3.5263 -4.1229 -1.8327e-05 255 0 0
-3.3948 -4.119 -1.8147e-05 255 0 0
-8.4284 -3.9364 -5.4866e-05 255 0 0
-8.0809 -3.9681 -5.3088e-05 255 0 0
-5.9248 -3.9772 -1.6583e-05 255 0 0
-5.7745 -3.9767 -1.6037e-05 255 0 0
-5.6247 -3.9759 -1.5558e-05 255 0 0
-5.0244 -3.9733 -2.0048e-05 255 0 0
-4.8744 -3.9707 -1.996e-05 255 0 0
-4.7251 -3.9782 -2.2169e-05 255 0 0
-4.5744 -3.9824 -2.3566e-05 255 0 0
-4.4237 -3.9801 -2.2755e-05 255 0 0
-4.2756 -3.9788 -2.3335e-05 255 0 0
-4.1262 -3.9749 -2.3131e-05 255 0 0
-3.9755 -3.9732 -2.3189e-05 255 0 0
-3.6708 -3.9774 -2.1103e-05 255 0 0
-3.525 -3.9755 -1.8341e-05 255 0 0
-3.3757 -3.9747 -1.8974e-05 255 0 0
-3.2909 -3.9346 -1.9888e-05 255 0 0
-8.5775 -3.7795 -5.6148e-05 255 0 0
-8.087 -3.8204 -5.3704e-05 255 0 0
-6.0753 -3.8281 -2.8811e-05 255 0 0
-5.4826 -3.8246 -1.9221e-05 255 0 0
-8.7201 -3.6194 -5.73e-05 255 0 0
-8.3255 -3.6721 -5.5284e-05 255 0 0
-8.1733 -3.6754 -5.4637e-05 255 0 0
-8.0773 -3.6853 -5.4181e-05 255 0 0
-6.2237 -3.6821 -2.8959e-05 255 0 0
-5.3277 -3.673 -2.842e-05 255 0 0
-5.1707 -3.6723 -2.7674e-05 255 0 0
-4.724 -3.6895 -2.5511e-05 255 0 0
-4.125 -3.6772 -2.9996e-05 255 0 0
-3.9748 -3.6732 -3e-05 255 0 0
-3.8256 -3.6717 -2.9999e-05 255 0 0
-3.3681 -3.6677 -1.5282e-05 255 0 0
-3.2646 -3.6729 -1.5328e-05 255 0 0
-8.8696 -3.456 -5.8651e-05 255 0 0
-8.4723 -3.5263 -5.664e-05 255 0 0
-8.3232 -3.5231 -5.5946e-05 255 0 0
-8.176 -3.5268 -5.5231e-05 255 0 0
-8.0835 -3.5269 -5.4836e-05 255 0 0
-6.224 -3.5257 -3.2577e-05 255 0 0
-5.4736 -3.5276 -3.0232e-05 255 0 0
-5.3242 -3.5241 -3.0232e-05 255 0 0
-5.1747 -3.5221 -3.0228e-05 255 0 0
-5.0224 -3.5254 -3.022e-05 255 0 0
-4.876 -3.5301 -3.0199e-05 255 0 0
-4.7252 -3.5268 -3.0202e-05 255 0 0
-9.0027 -3.3028 -5.9843e-05 255 0 0
-8.4747 -3.3764 -5.7171e-05 255 0 0
-8.0797 -3.3786 -5.5313e-05 255 0 0
-6.2245 -3.3732 -3.2912e-05 255 0 0
-9.0501 -3.1986 -6.0618e-05 255 0 0
-8.9271 -3.2223 -5.9843e-05 255 0 0
-8.7766 -3.2244 -5.9247e-05 255 0 0
-8.6247 -3.2302 -5.8492e-05 255 0 0
-8.1752 -3.2181 -4.008e-05 255 0 0
-8.0822 -3.2306 -5.5999e-05 255 0 0
-6.2241 -3.223 -3.3985e-05 255 0 0
-9.0643 -3.0832 -6.1105e-05 255 0 0
-8.9248 -3.0759 -6.0382e-05 255 0 0
-8.314 -3.0702 -4.3956e-05 255 0 0
-8.1823 -3.0762 -4.0509e-05 255 0 0
-8.0834 -3.0786 -5.6471e-05 255 0 0
-6.2253 -3.076 -3.3587e-05 255 0 0
-9.001 -2.9878 -6.1274e-05 255 0 0
-8.1804 -2.9303 -4.0589e-05 255 0 0
-8.0805 -2.9348 -5.7084e-05 255 0 0
-6.2219 -2.9243 -3.4144e-05 255 0 0
-3.1152 -2.9146 -1.7558e-05 255 0 0
-8.8642 -2.8427 -6.1274e-05 255 0 0
-8.765 -2.7864 -6.0876e-05 255 0 0
-8.4719 -2.7652 -3.8718e-05 255 0 0
-8.325 -2.7662 -3.8551e-05 255 0 0
-8.0831 -2.7822 -5.7765e-05 255 0 0
-6.2234 -2.7709 -3.4506e-05 255 0 0
-3.2308 -2.7835 -1.3119e-05 255 0 0
-3.0854 -2.7733 -2.1994e-05 255 0 0
-8.4769 -2.6226 -3.9887e-05 255 0 0
-8.0857 -2.6245 -5.8413e-05 255 0 0
-3.2306 -2.636 -1.9963e-05 255 0 0
-8.7416 -2.463 -2.3438e-05 255 0 0
-8.6206 -2.4765 -2.7526e-05 255 0 0
-8.0796 -2.4732 -5.8889e-05 255 0 0
-6.2263 -2.474 -3.5671e-05 255 0 0
-8.8789 -2.2889 -2.256e-05 255 0 0
-8.7722 -2.3232 -2.312e-05 255 0 0
-8.6253 -2.3232 -2.3631e-05 255 0 0
-8.0809 -2.325 -5.9673e-05 255 0 0
-6.2251 -2.3275 -3.4993e-05 255 0 0
-2.8488 -2.2905 -3.1233e-05 255 0 0
-9.0142 -2.1283 -2.1696e-05 255 0 0
-8.9199 -2.1664 -2.2214e-05 255 0 0
-8.0849 -2.1752 -6.0463e-05 255 0 0
-6.2244 -2.1759 -3.5563e-05 255 0 0
-2.9264 -2.1796 -2.5231e-05 255 0 0
-2.8284 -2.1648 -3.1471e-05 255 0 0
-9.0503 -2.0223 -2.1378e-05 255 0 0
-8.0814 -2.0527 -6.0797e-05 255 0 0
-6.2231 -2.0307 -3.5859e-05 255 0 0
-2.9258 -2.0541 -2.3619e-05 255 0 0
-2.8137 -2.0448 -3.1577e-05 255 0 0
-9.1826 -1.87 -2.0538e-05 255 0 0
-8.1845 -1.8746 -2.4126e-05 255 0 0
-6.225 -1.8815 -3.5761e-05 255 0 0
-4.5733 -1.8635 -3.1869e-05 255 0 0
-4.4244 -1.8629 -3.1866e-05 255 0 0
-4.2731 -1.8565 -3.1872e-05 255 0 0
-3.9707 -1.8638 -3.1846e-05 255 0 0
-3.6791 -1.8884 -3.1803e-05 255 0 0
-9.2249 -1.7347 -2.0081e-05 255 0 0
-9.0795 -1.7391 -2.059e-05 255 0 0
-8.7732 -1.7298 -2.1677e-05 255 0 0
-8.4757 -1.7269 -2.2749e-05 255 0 0
-8.3255 -1.7265 -2.3279e-05 255 0 0
-6.2236 -1.7298 -3.6268e-05 255 0 0
-5.9457 -1.7344 -3.3465e-05 255 0 0
-5.774 -1.7333 -3.2107e-05 255 0 0
-5.6249 -1.7308 -3.211e-05 255 0 0
-5.3268 -1.7279 -3.2101e-05 255 0 0
-5.1747 -1.7212 -3.211e-05 255 0 0
-4.2771 -1.7102 -3.2104e-05 255 0 0
-3.973 -1.7032 -3.2107e-05 255 0 0
-3.8303 -1.7197 -3.2074e-05 255 0 0
-3.6701 -1.7444 -3.2035e-05 255 0 0
-5.9413 -1.5863 -3.1024e-05 255 0 0
-5.7795 -1.576 -3.2008e-05 255 0 0
-5.6268 -1.5756 -3.2263e-05 255 0 0
-5.4744 -1.5709 -3.2266e-05 255 0 0
-5.3249 -1.5684 -3.2266e-05 255 0 0
-5.1755 -1.5659 -3.2266e-05 255 0 0
-5.026 -1.5634 -3.2266e-05 255 0 0
-4.8765 -1.5609 -3.2266e-05 255 0 0
-4.727 -1.5584 -3.2266e-05 255 0 0
-4.5776 -1.5559 -3.2266e-05 255 0 0
-4.4356 -1.5677 -3.2224e-05 255 0 0
-4.2794 -1.5778 -3.2187e-05 255 0 0
-4.1305 -1.5753 -3.2187e-05 255 0 0
-3.9769 -1.5743 -3.2187e-05 255 0 0
-6.0755 -1.4319 -3.7202e-05 255 0 0
-5.7749 -1.4671 -3.1769e-05 255 0 0
-5.623 -1.4646 -3.2187e-05 255 0 0
-5.4712 -1.4621 -3.2187e-05 255 0 0
-5.3193 -1.4595 -3.2187e-05 255 0 0
-5.1675 -1.457 -3.2187e-05 255 0 0
-5.0251 -1.4546 -3.2187e-05 255 0 0
-4.8828 -1.4522 -3.2187e-05 255 0 0
-4.7309 -1.4497 -3.2187e-05 255 0 0
-4.5791 -1.4471 -3.2187e-05 255 0 0
-4.4166 -1.4655 -3.2278e-05 255 0 0
-4.2762 -1.4695 -3.2306e-05 255 0 0
-4.125 -1.467 -3.2306e-05 255 0 0
-3.8225 -1.4619 -3.2306e-05 255 0 0
-3.6712 -1.4594 -3.2306e-05 255 0 0
-6.0929 -1.2771 -3.7349e-05 255 0 0
-6.1051 -1.1301 -3.6426e-05 255 0 0
-6.1293 -0.84689 -2.2817e-05 255 0 0
-6.1439 -0.67699 -2.9802e-07 255 0 0
-6.2439 -0.53184 -3.9773e-05 255 0 0
-6.2519 -0.38809 -3.828e-05 255 0 0
-6.3581 -0.23417 -6.0055e-05 255 0 0
-6.2792 -0.22918 -5.97e-05 255 0 0
-6.3103 -0.1346 -6.032e-05 255 0 0
-6.4457 -16.518 0.075426 255 0 0
-6.4537 -14.604 0.084279 255 0 0
-6.4455 -14.616 0.075787 255 0 0
-6.4456 -14.48 0.076762 255 0 0
-0.063448 -12.683 0.079791 255 0 0
-0.063516 -12.54 0.072054 255 0 0
-0.55835 -12.055 0.067525 255 0 0
-0.59484 -11.999 0.067522 255 0 0
-0.82036 -11.776 0.045315 255 0 0
-0.71493 -11.766 0.10372 255 0 0
-0.34038 -11.723 0.075462 255 0 0
-0.39687 -11.65 0.074664 255 0 0
-0.55079 -11.526 0.040918 255 0 0
-3.5826 -10.27 0.079087 255 0 0
3.4282 -10.206 0.076129 255 0 0
-2.3489 -10.095 0.075639 255 0 0
3.4282 -10.191 0.069535 255 0 0
2.4699 -9.9582 0.00010893 255 0 0
2.5672 -9.9698 0.00013232 255 0 0
3.506 -9.9936 0.077152 255 0 0
-11.447 -9.8237 9.4771e-06 255 0 0
-11.311 -9.8248 9.0599e-06 255 0 0
-11.18 -9.8257 8.7023e-06 255 0 0
-11.054 -9.8267 8.4043e-06 255 0 0
-10.704 -9.821 7.3314e-06 255 0 0
-10.595 -9.8302 7.0333e-06 255 0 0
-10.437 -9.8234 6.5471e-06 255 0 0
-10.291 -9.8247 6.0797e-06 255 0 0
-10.151 -9.8222 5.722e-06 255 0 0
-9.9739 -9.8239 5.275e-06 255 0 0
-9.8076 -9.8255 4.7386e-06 255 0 0
-9.6512 -9.8269 4.2617e-06 255 0 0
-9.5023 -9.825 3.8691e-06 255 0 0
-9.3634 -9.8264 3.4519e-06 255 0 0
-9.2335 -9.8246 3.0398e-06 255 0 0
-9.0794 -9.8253 2.6623e-06 255 0 0
-8.907 -9.8252 2.1254e-06 255 0 0
-8.7728 -9.8239 1.7285e-06 255 0 0
-8.6238 -9.8217 1.2821e-06 255 0 0
-8.4617 -9.8284 7.1932e-07 255 0 0
-8.3185 -9.8201 2.9229e-07 255 0 0
-6.5202 -9.8139 0.075043 255 0 0
-2.3228 -9.8253 4.5303e-05 255 0 0
-2.1732 -9.8246 4.4902e-05 255 0 0
-2.0255 -9.825 4.4485e-05 255 0 0
-1.8763 -9.8257 4.4112e-05 255 0 0
-1.7279 -9.8245 4.3731e-05 255 0 0
-1.5724 -9.8242 4.3316e-05 255 0 0
-1.4241 -9.8255 4.2935e-05 255 0 0
-1.2744 -9.8254 4.2534e-05 255 0 0
-1.1236 -9.8251 4.2147e-05 255 0 0
-0.81371 -9.8239 4.1333e-05 255 0 0
-0.3671 -9.8257 4.0503e-05 255 0 0
-0.2156 -9.8246 0.00010656 255 0 0
-0.07339 -9.8257 0.00011014 255 0 0
0.076746 -9.8268 0.00011759 255 0 0
0.22286 -9.8234 0.00011454 255 0 0
0.37557 -9.8246 0.00010689 255 0 0
0.53079 -9.8253 0.00011099 255 0 0
0.67421 -9.8249 0.00011119 255 0 0
0.82738 -9.8255 0.00011009 255 0 0
0.97971 -9.8262 0.00012109 255 0 0
1.1218 -9.8234 0.00010609 255 0 0
1.2791 -9.823 0.00010592 255 0 0
1.4283 -9.825 0.00011656 255 0 0
1.7202 -9.8252 0.0001168 255 0 0
1.863 -9.8279 0.00011156 255 0 0
2.0159 -9.8253 9.8128e-05 255 0 0
2.183 -9.8252 0.00011605 255 0 0
2.3331 -9.8294 0.00010444 255 0 0
2.4624 -9.8222 0.00011196 255 0 0
2.5664 -9.8273 0.00013208 255 0 0
-2.6229 -9.6719 4.6313e-05 255 0 0
-2.4753 -9.6749 4.5931e-05 255 0 0
0.67459 -9.6747 0.00011046 255 0 0
0.97887 -9.6758 0.00012011 255 0 0
1.2785 -9.6746 0.00010518 255 0 0
1.4293 -9.674 0.00011783 255 0 0
2.0243 -9.6718 0.00010442 255 0 0
2.1942 -9.6824 0.00011392 255 0 0
2.3319 -9.6763 0.00010315 255 0 0
2.4636 -9.67 0.00011109 255 0 0
2.5655 -9.6753 0.00013185 255 0 0
-8.4676 -9.5279 6.5707e-07 255 0 0
-2.7463 -9.5248 4.6891e-05 255 0 0
0.075192 -9.5244 0.0001167 255 0 0
0.22193 -9.5249 0.0001139 255 0 0
0.37421 -9.525 0.00010468 255 0 0
1.863 -9.5245 0.00011121 255 0 0
2.0287 -9.5248 0.00010316 255 0 0
2.2024 -9.525 0.00011067 255 0 0
-8.7578 -9.3711 1.5895e-06 255 0 0
-8.6093 -9.3781 1.1126e-06 255 0 0
-8.4701 -9.3774 6.1407e-07 255 0 0
-8.3217 -9.3753 1.7881e-07 255 0 0
-2.7462 -9.3748 4.713e-05 255 0 0
-0.67641 -9.3733 4.1727e-05 255 0 0
-0.52701 -9.3737 4.1286e-05 255 0 0
-0.36802 -9.3742 4.084e-05 255 0 0
-0.21716 -9.3745 0.00010698 255 0 0
0.074302 -9.3745 0.0001172 255 0 0
2.0281 -9.3757 0.00010526 255 0 0
2.2016 -9.3741 0.00011108 255 0 0
2.5637 -9.3714 0.00013137 255 0 0
-2.746 -9.2251 4.7367e-05 255 0 0
-2.6255 -9.2248 4.705e-05 255 0 0
-1.5838 -9.2249 4.433e-05 255 0 0
-1.4368 -9.2253 4.3925e-05 255 0 0
-1.2737 -9.2257 4.3488e-05 255 0 0
-1.1228 -9.2257 4.311e-05 255 0 0
-0.81365 -9.2251 4.2283e-05 255 0 0
-0.67539 -9.2242 4.1956e-05 255 0 0
1.7336 -9.2237 0.0001109 255 0 0
1.8607 -9.2234 0.00011277 255 0 0
2.0276 -9.2266 0.00010275 255 0 0
2.1992 -9.2255 0.00011219 255 0 0
2.3342 -9.2236 0.00010584 255 0 0
2.5628 -9.2194 0.00013137 255 0 0
-11.465 -9.073 9.4175e-06 255 0 0
-2.7461 -9.0751 4.7609e-05 255 0 0
-2.475 -9.0751 4.6897e-05 255 0 0
-2.3223 -9.0752 4.6505e-05 255 0 0
-2.1729 -9.0744 4.6111e-05 255 0 0
-1.727 -9.0749 4.4931e-05 255 0 0
1.4257 -9.0731 0.00011704 255 0 0
1.5827 -9.0743 0.00010363 255 0 0
2.0243 -9.0912 9.3848e-05 255 0 0
2.2045 -9.0954 9.5404e-05 255 0 0
2.3451 -9.0999 9.4063e-05 255 0 0
2.4829 -9.094 8.3268e-05 255 0 0
2.5623 -9.1244 0.00013089 255 0 0
-11.468 -8.9229 9.4175e-06 255 0 0
-8.9278 -8.9258 2.0658e-06 255 0 0
-2.7459 -8.9251 4.7851e-05 255 0 0
1.5803 -8.9519 0.00010227 255 0 0
1.7145 -8.9543 8.9216e-05 255 0 0
1.8533 -8.9593 4.5443e-05 255 0 0
2.2176 -8.9668 4.6452e-05 255 0 0
2.3486 -8.9757 4.667e-05 255 0 0
-11.472 -8.7727 9.4175e-06 255 0 0
-8.9298 -8.7759 2.0626e-06 255 0 0
-8.3353 -8.7743 1.778e-07 255 0 0
-2.7459 -8.7751 4.8086e-05 255 0 0
-11.475 -8.6226 9.4175e-06 255 0 0
-8.3219 -8.6268 1.1287e-07 255 0 0
-2.7455 -8.6246 4.834e-05 255 0 0
0.52539 -8.6237 0.00011041 255 0 0
0.67035 -8.6228 0.00010901 255 0 0
0.85969 -8.6311 0.059617 255 0 0
0.947 -8.6058 0.033556 255 0 0
1.111 -8.6102 0.032323 255 0 0
2.3445 -8.5994 0.00013105 255 0 0
2.4771 -8.601 0.00013065 255 0 0
-11.479 -8.4724 9.4175e-06 255 0 0
-8.7773 -8.4726 1.5855e-06 255 0 0
-8.3209 -8.4735 9.618e-08 255 0 0
-2.7458 -8.4746 4.8585e-05 255 0 0
-2.6249 -8.4753 4.8254e-05 255 0 0
-2.4751 -8.4747 4.7869e-05 255 0 0
-2.3281 -8.4749 4.7482e-05 255 0 0
-2.0248 -8.4737 4.6688e-05 255 0 0
-1.7271 -8.4754 4.5882e-05 255 0 0
0.52573 -8.4719 0.00010889 255 0 0
0.91556 -8.4738 0.083818 255 0 0
2.0928 -8.4648 0.0001315 255 0 0
2.4764 -8.479 0.00013037 255 0 0
2.5585 -8.4785 0.00013006 255 0 0
-11.482 -8.3223 9.4175e-06 255 0 0
-8.782 -8.3224 1.5497e-06 255 0 0
-8.3253 -8.3247 1.0024e-07 255 0 0
-6.5003 -8.3088 0.082565 255 0 0
-6.439 -8.282 0.075635 255 0 0
-2.4744 -8.3248 4.8106e-05 255 0 0
-2.328 -8.325 4.7739e-05 255 0 0
-2.1797 -8.3248 4.7341e-05 255 0 0
-2.0249 -8.325 4.6938e-05 255 0 0
-1.8751 -8.3253 4.6551e-05 255 0 0
-1.7268 -8.3248 4.6126e-05 255 0 0
-1.5836 -8.3239 4.5775e-05 255 0 0
-1.4367 -8.3258 4.54e-05 255 0 0
-1.2876 -8.3258 4.5e-05 255 0 0
-1.1383 -8.3245 4.4609e-05 255 0 0
-0.9748 -8.3249 4.4173e-05 255 0 0
-0.8116 -8.3253 4.3724e-05 255 0 0
0.36965 -8.3254 0.00010409 255 0 0
1.5783 -8.29 0.00010827 255 0 0
1.7303 -8.2906 0.00011372 255 0 0
2.0349 -8.2941 9.906e-05 255 0 0
2.1956 -8.3202 0.0001196 255 0 0
2.342 -8.3231 0.00011895 255 0 0
2.4775 -8.319 0.00011347 255 0 0
2.5576 -8.3265 0.00012985 255 0 0
-11.349 -8.1783 8.9407e-06 255 0 0
-11.218 -8.1752 8.6427e-06 255 0 0
-11.032 -8.1751 8.0466e-06 255 0 0
-9.2086 -8.1744 2.7965e-06 255 0 0
-8.7852 -8.1856 1.5497e-06 255 0 0
-8.6382 -8.1925 1.0787e-06 255 0 0
-8.3296 -8.2062 1.0316e-07 255 0 0
-2.7454 -8.1751 4.9069e-05 255 0 0
-1.2872 -8.1745 4.5252e-05 255 0 0
-1.1379 -8.1749 4.4841e-05 255 0 0
-0.97518 -8.1744 4.4408e-05 255 0 0
-0.81273 -8.1759 4.3963e-05 255 0 0
-0.6757 -8.1733 4.3627e-05 255 0 0
-0.52745 -8.1749 4.3219e-05 255 0 0
-0.36611 -8.1758 4.2825e-05 255 0 0
-0.21439 -8.1746 0.0001101 255 0 0
-0.064973 -8.1747 0.00010911 255 0 0
0.52427 -8.1751 0.00010763 255 0 0
1.7303 -8.1754 0.00011015 255 0 0
2.5567 -8.1745 0.00012961 255 0 0
-11.489 -8.022 9.4175e-06 255 0 0
-10.858 -8.0216 7.5102e-06 255 0 0
-9.2105 -8.0928 2.7418e-06 255 0 0
-2.7477 -8.0265 4.9312e-05 255 0 0
-2.4743 -8.025 4.8606e-05 255 0 0
-2.1796 -8.025 4.7828e-05 255 0 0
-2.0249 -8.0249 4.7434e-05 255 0 0
-0.3672 -8.0253 4.3051e-05 255 0 0
-0.2154 -8.0249 0.00010933 255 0 0
-0.065637 -8.0255 0.00010916 255 0 0
0.077724 -8.0251 0.00011383 255 0 0
0.21452 -8.0249 0.00011269 255 0 0
0.52315 -8.0253 0.00010868 255 0 0
2.1948 -8.0276 0.00010803 255 0 0
2.5558 -8.0226 0.0001294 255 0 0
-11.492 -7.9188 9.4175e-06 255 0 0
-11.354 -7.9388 0.082565 255 0 0
-11.224 -7.9316 8.6427e-06 255 0 0
-10.99 -7.9424 0.074292 255 0 0
-2.7493 -7.8748 4.9564e-05 255 0 0
-2.6293 -7.875 4.9233e-05 255 0 0
-1.7266 -7.8749 4.6872e-05 255 0 0
-1.583 -7.8753 4.651e-05 255 0 0
-1.2877 -7.8746 4.5724e-05 255 0 0
0.36861 -7.8746 0.00010431 255 0 0
1.1152 -7.8741 0.0001031 255 0 0
1.4201 -7.8745 0.00011542 255 0 0
2.3425 -7.874 0.00010887 255 0 0
2.5549 -7.8706 0.00012919 255 0 0
-2.7491 -7.7251 4.9806e-05 255 0 0
-2.6291 -7.7249 4.9482e-05 255 0 0
-1.1383 -7.7244 4.5547e-05 255 0 0
-0.97449 -7.7265 4.512e-05 255 0 0
-0.81156 -7.7241 4.4696e-05 255 0 0
-0.52718 -7.7256 4.393e-05 255 0 0
2.4766 -7.724 0.00010149 255 0 0
2.554 -7.7186 0.00012898 255 0 0
-0.52594 -7.5762 4.419e-05 255 0 0
-0.36577 -7.5756 4.3791e-05 255 0 0
-0.21756 -7.5745 0.00010945 255 0 0
-0.067248 -7.5751 0.0001105 255 0 0
0.21314 -7.5743 0.00011267 255 0 0
0.96838 -7.5758 0.00011829 255 0 0
1.114 -7.5728 0.00010267 255 0 0
1.4179 -7.5756 0.000115 255 0 0
1.5777 -7.5749 0.00010218 255 0 0
1.7278 -7.577 0.00010929 255 0 0
1.8734 -7.5757 0.00011314 255 0 0
2.0364 -7.5756 9.4436e-05 255 0 0
2.1944 -7.5729 0.00010741 255 0 0
2.3399 -7.5748 0.00010727 255 0 0
2.4756 -7.577 0.0001037 255 0 0
2.5531 -7.5666 0.00012875 255 0 0
0.53082 -7.4266 0.00011066 255 0 0
0.69258 -7.4162 7.4248e-05 255 0 0
0.82632 -7.4205 4.7409e-05 255 0 0
1.4169 -7.412 8.9619e-05 255 0 0
1.8707 -7.4249 0.00011287 255 0 0
2.5523 -7.4242 0.00012854 255 0 0
-2.6076 -7.3093 5.01e-05 255 0 0
-2.4724 -7.2768 4.9808e-05 255 0 0
-2.1789 -7.275 4.9051e-05 255 0 0
-2.0243 -7.2752 4.8619e-05 255 0 0
-1.875 -7.275 4.8234e-05 255 0 0
-1.5825 -7.2748 4.7484e-05 255 0 0
-1.436 -7.2746 4.7074e-05 255 0 0
-1.2867 -7.2755 4.6685e-05 255 0 0
-1.1373 -7.2756 4.6286e-05 255 0 0
-0.97334 -7.2747 4.5839e-05 255 0 0
-0.8116 -7.2748 4.5428e-05 255 0 0
-0.67332 -7.275 4.5092e-05 255 0 0
-0.36559 -7.2746 4.4289e-05 255 0 0
-0.21795 -7.2745 0.00010995 255 0 0
-0.068509 -7.2749 0.00010925 255 0 0
0.21201 -7.2742 0.00011296 255 0 0
0.36537 -7.2755 0.00010449 255 0 0
0.53706 -7.2679 9.0802e-05 255 0 0
0.68181 -7.2739 5.3273e-05 255 0 0
0.82667 -7.2759 4.6587e-05 255 0 0
1.118 -7.2749 4.7776e-05 255 0 0
1.2717 -7.2756 4.9068e-05 255 0 0
1.4212 -7.274 5.1668e-05 255 0 0
1.5761 -7.2755 5.1772e-05 255 0 0
1.8712 -7.2648 6.6643e-05 255 0 0
2.03 -7.2626 6.4849e-05 255 0 0
2.5514 -7.2817 0.00012833 255 0 0
-6.4516 -5.7556 0.15 255 0 0
-6.4526 -5.6219 0.14999 255 0 0
-6.4529 -4.8514 0.14999 255 0 0
-6.4529 -4.7246 0.14999 255 0 0
-6.2643 -3.6004 1.1921e-07 255 0 0
-6.0771 -3.6654 5.9605e-08 255 0 0
-5.9278 -3.6634 5.9605e-08 255 0 0
-5.4734 -3.6573 5.9605e-08 255 0 0
-5.3144 -3.6814 3.5763e-08 255 0 0
-5.1873 -3.6766 7.7135e-08 255 0 0
-5.0255 -3.6512 1.1921e-07 255 0 0
-4.727 -3.6472 1.4901e-07 255 0 0
-4.5777 -3.6452 1.7881e-07 255 0 0
-4.4154 -3.6623 1.2622e-07 255 0 0
-4.1226 -3.6733 8.552e-08 255 0 0
-3.9743 -3.6685 1.0107e-07 255 0 0
-3.8261 -3.6694 9.3294e-08 255 0 0
-3.5263 -3.6639 1.4901e-07 255 0 0
-3.3781 -3.6619 1.4901e-07 255 0 0
-3.252 -3.658 1.8279e-07 255 0 0
-6.2158 -3.5172 2.7035e-07 255 0 0
-5.7757 -3.5238 3.0153e-07 255 0 0
-5.6244 -3.5238 3.3308e-07 255 0 0
-5.3255 -3.5546 3.4467e-07 255 0 0
-5.0239 -3.5491 2.9802e-07 255 0 0
-4.7256 -3.5451 3.2783e-07 255 0 0
-4.2748 -3.539 3.8743e-07 255 0 0
-3.6748 -3.5324 4.1464e-07 255 0 0
-6.2222 -3.3494 6.5281e-07 255 0 0
-3.137 -3.3686 8.146e-07 255 0 0
-6.2224 -3.1914 9.5069e-07 255 0 0
-3.2251 -3.2286 1.0757e-06 255 0 0
-3.1188 -3.2247 1.1457e-06 255 0 0
-6.2196 -3.0681 1.2517e-06 255 0 0
-6.2279 -2.9404 1.493e-06 255 0 0
-3.2263 -2.9001 1.8137e-06 255 0 0
-3.0766 -2.8937 1.8352e-06 255 0 0
-2.9935 -2.8507 1.9073e-06 255 0 0
-6.2282 -2.7555 1.8477e-06 255 0 0
-3.2004 -2.7454 8.8889e-07 255 0 0
-3.0818 -2.7458 6.0648e-07 255 0 0
-2.9843 -2.7591 2.0862e-06 255 0 0
-3.2194 -2.6175 7.3599e-07 255 0 0
-3.075 -2.6243 8.5299e-07 255 0 0
-6.2264 -2.4599 2.5254e-06 255 0 0
-6.2277 -2.2964 2.861e-06 255 0 0
-2.9432 -2.3156 1.9733e-06 255 0 0
-2.841 -2.2509 3.2187e-06 255 0 0
-6.2257 -2.1839 3.0398e-06 255 0 0
-3.671 -2.1496 3.2981e-06 255 0 0
-3.5263 -2.1477 3.3379e-06 255 0 0
-3.3463 -2.1659 1.8001e-06 255 0 0
-3.2268 -2.1705 1.2214e-06 255 0 0
-3.0779 -2.1704 1.5974e-06 255 0 0
-2.9332 -2.1665 2.0092e-06 255 0 0
-2.8195 -2.1382 3.4571e-06 255 0 0
-6.2236 -2.0673 3.3379e-06 255 0 0
-3.6732 -2.033 3.6359e-06 255 0 0
-6.2246 -1.887 4.0706e-06 255 0 0
-5.7741 -1.8773 3.7998e-06 255 0 0
-5.6266 -1.8716 3.8287e-06 255 0 0
-5.3278 -1.8713 3.8743e-06 255 0 0
-4.5772 -1.9241 3.7551e-06 255 0 0
-4.4269 -1.9221 3.8445e-06 255 0 0
-4.2766 -1.9201 3.8743e-06 255 0 0
-4.1263 -1.918 3.8743e-06 255 0 0
-3.9761 -1.916 3.8544e-06 255 0 0
-3.6755 -1.912 3.8743e-06 255 0 0
-6.226 -1.6897 4.9621e-06 255 0 0
-6.0789 -1.6878 4.597e-06 255 0 0
-5.9319 -1.6858 4.2841e-06 255 0 0
-5.7757 -1.6837 4.2319e-06 255 0 0
-5.6194 -1.6816 4.2319e-06 255 0 0
-5.4724 -1.6796 4.2319e-06 255 0 0
-5.3254 -1.6776 4.2766e-06 255 0 0
-5.1783 -1.6757 4.2543e-06 255 0 0
-4.5709 -1.7329 4.2021e-06 255 0 0
-4.4253 -1.7309 4.2021e-06 255 0 0
-4.275 -1.7327 4.2039e-06 255 0 0
-4.1251 -1.7269 4.2319e-06 255 0 0
-3.9748 -1.721 4.2389e-06 255 0 0
-3.8246 -1.7228 4.2021e-06 255 0 0
-3.6747 -1.7247 4.1934e-06 255 0 0
-6.0737 -1.5517 5.2601e-06 255 0 0
-5.9237 -1.5496 4.9174e-06 255 0 0
-5.1737 -1.5396 4.5225e-06 255 0 0
-4.2736 -1.5275 4.7088e-06 255 0 0
-4.1236 -1.5255 4.7088e-06 255 0 0
-3.9736 -1.5234 4.6864e-06 255 0 0
-3.5809 -1.4356 0.078679 255 0 0
-6.4343 -0.27037 0.066449 255 0 0
-6.2658 -0.23514 1.1921e-07 255 0 0
-6.4557 -16.433 0.22846 255 0 0
-3.5745 -13.063 0.22364 255 0 0
-0.77712 -12.956 0.22597 255 0 0
-0.063443 -12.681 0.22111 255 0 0
-0.063532 -12.391 0.26435 255 0 0
-0.76869 -11.883 0.29174 255 0 0
-0.39532 -11.71 0.17215 255 0 0
-3.5729 -10.27 0.22495 255 0 0
3.4282 -10.206 0.23261 255 0 0
-3.5728 -10.12 0.22514 255 0 0
-2.3489 -10.095 0.22537 255 0 0
-12.177 -9.9555 0.22979 255 0 0
-6.8565 -9.9567 0.2249 255 0 0
-3.2894 -9.9838 0.22501 255 0 0
2.2834 -9.9937 0.22266 255 0 0
3.2511 -10.014 0.22468 255 0 0
-6.5118 -9.8228 0.22486 255 0 0
-6.4371 -9.8231 0.22418 255 0 0
0.87727 -8.8556 0.22407 255 0 0
0.88633 -8.6438 0.22734 255 0 0
0.92064 -8.5597 0.23203 255 0 0
1.0883 -8.5618 0.28269 255 0 0
1.3521 -8.5563 0.28013 255 0 0
-6.4338 -8.2975 0.22535 255 0 0
-10.997 -7.9544 0.2216 255 0 0
-10.958 -7.9451 0.22787 255 0 0
3.0748 -7.0725 0.22369 255 0 0
-6.447 -5.777 0.15 255 0 0
-6.4474 -5.6027 0.15001 255 0 0
-3.5711 -5.056 0.22514 255 0 0
-6.4467 -4.8643 0.15001 255 0 0
-6.4471 -4.7221 0.15001 255 0 0
-2.8143 -2.0113 0.22349 255 0 0
-3.5708 -1.4843 0.21627 255 0 0
-6.4545 -0.25055 0.22544 255 0 0
-6.4487 -0.27288 0.15001 255 0 0
-6.4557 -16.434 0.37776 255 0 0
-3.5747 -13.063 0.37451 255 0 0
-0.7776 -12.956 0.37479 255 0 0
-0.063447 -12.675 0.37725 255 0 0
-0.063497 -12.528 0.38603 255 0 0
-0.063599 -12.228 0.38498 255 0 0
-0.66192 -12.035 0.41776 255 0 0
-0.22297 -12.013 0.42344 255 0 0
-0.81475 -11.902 0.38932 255 0 0
-0.71949 -11.974 0.42335 255 0 0
-0.22535 -11.921 0.42888 255 0 0
-0.23058 -11.78 0.42842 255 0 0
-3.5729 -10.27 0.37504 255 0 0
3.4282 -10.206 0.37988 255 0 0
-3.5728 -10.12 0.37533 255 0 0
-2.3489 -10.095 0.3751 255 0 0
3.4282 -10.19 0.37719 255 0 0
-6.8563 -9.9567 0.37496 255 0 0
-3.2893 -9.9838 0.37464 255 0 0
2.2827 -9.9939 0.37422 255 0 0
3.2511 -10.015 0.37512 255 0 0
-6.5118 -9.8228 0.37504 255 0 0
0.96222 -8.9558 0.39077 255 0 0
0.88508 -8.6462 0.3766 255 0 0
1.044 -8.5904 0.31371 255 0 0
1.107 -8.5912 0.32162 255 0 0
1.3228 -8.5765 0.377 255 0 0
1.3515 -8.5563 0.37456 255 0 0
-6.4338 -8.2975 0.37512 255 0 0
3.0729 -7.0725 0.37514 255 0 0
-3.5711 -5.0553 0.37669 255 0 0
-2.8146 -2.0113 0.37436 255 0 0
-3.5708 -1.4843 0.36695 255 0 0
-6.4545 -0.25055 0.37812 255 0 0
-3.5745 -13.063 0.52552 255 0 0
-0.77678 -12.956 0.5268 255 0 0
-0.063504 -12.526 0.52392 255 0 0
-0.75171 -11.88 0.45248 255 0 0
-0.66094 -11.911 0.45439 255 0 0
-0.53073 -11.917 0.45439 255 0 0
-0.3999 -11.904 0.45438 255 0 0
-0.39969 -11.766 0.45439 255 0 0
-0.39938 -11.675 0.45367 255 0 0
-3.5729 -10.27 0.52507 255 0 0
3.4282 -10.208 0.51586 255 0 0
-3.5728 -10.12 0.52528 255 0 0
-2.3489 -10.095 0.52514 255 0 0
-12.044 -9.9555 0.52796 255 0 0
-6.8565 -9.9567 0.52503 255 0 0
-3.2893 -9.9838 0.52488 255 0 0
3.2511 -10.014 0.52456 255 0 0
-6.4371 -9.8227 0.52464 255 0 0
0.87732 -8.8955 0.52587 255 0 0
0.96072 -8.9557 0.52514 255 0 0
0.88671 -8.7764 0.51882 255 0 0
0.8855 -8.6465 0.51794 255 0 0
1.3251 -8.5758 0.52183 255 0 0
1.3505 -8.5562 0.52404 255 0 0
-6.4338 -8.2975 0.52489 255 0 0
-3.5711 -5.0569 0.5281 255 0 0
-2.8148 -2.0113 0.52234 255 0 0
-3.5708 -1.4843 0.51764 255 0 0
-6.4546 -0.25074 0.52613 255 0 0
-6.4557 -16.437 0.67487 255 0 0
-3.5746 -13.063 0.67373 255 0 0
-0.063505 -12.525 0.67526 255 0 0
-0.063555 -12.378 0.67558 255 0 0
-0.22375 -11.788 0.67253 255 0 0
3.4282 -10.207 0.68653 255 0 0
-3.5728 -10.12 0.67506 255 0 0
-2.3489 -10.095 0.67519 255 0 0
3.4282 -10.191 0.68625 255 0 0
-12.043 -9.9555 0.67536 255 0 0
-6.8563 -9.9567 0.6753 255 0 0
-3.2894 -9.9838 0.67451 255 0 0
2.2839 -9.9934 0.67079 255 0 0
3.2511 -10.015 0.67508 255 0 0
-6.437 -9.8227 0.67463 255 0 0
0.96072 -8.9557 0.67877 255 0 0
0.77352 -8.778 0.67606 255 0 0
0.77353 -8.6474 0.67594 255 0 0
1.3435 -8.5675 0.67536 255 0 0
1.35 -8.5562 0.6027 255 0 0
-6.4338 -8.2975 0.67466 255 0 0
-10.991 -7.9549 0.67542 255 0 0
-10.952 -7.9456 0.6784 255 0 0
3.0782 -7.0725 0.67277 255 0 0
-2.8171 -2.0113 0.66459 255 0 0
-3.5708 -1.4843 0.64007 255 0 0
-6.4545 -0.25055 0.67393 255 0 0
-6.406 -16.558 0.83296 255 0 0
-3.6257 -13.08 0.84353 255 0 0
-3.5739 -13.073 0.80288 255 0 0
-0.7776 -12.956 0.82443 255 0 0
-0.063504 -12.526 0.82605 255 0 0
-0.063556 -12.375 0.82484 255 0 0
-0.23164 -11.785 0.79422 255 0 0
-3.6224 -10.121 0.83866 255 0 0
-3.5728 -10.119 0.75941 255 0 0
-2.3489 -10.096 0.82557 255 0 0
-6.8568 -9.9567 0.82705 255 0 0
-3.2847 -9.9838 0.81631 255 0 0
2.2698 -9.9596 0.82681 255 0 0
3.2624 -9.9999 0.82942 255 0 0
3.5076 -9.9563 0.83434 255 0 0
-6.4264 -9.8397 0.82933 255 0 0
1.1233 -8.9098 0.86802 255 0 0
1.2577 -8.8875 0.86612 255 0 0
1.3639 -8.8552 0.86635 255 0 0
1.1379 -8.7798 0.87871 255 0 0
1.2516 -8.7988 0.87955 255 0 0
0.79061 -8.6447 0.82192 255 0 0
0.98299 -8.6404 0.86623 255 0 0
1.3312 -8.5743 0.83004 255 0 0
1.3675 -8.6193 0.8611 255 0 0
-6.4882 -8.296 0.80211 255 0 0
-10.989 -7.955 0.82362 255 0 0
-10.95 -7.9458 0.78224 255 0 0
-10.949 -7.9458 0.85144 255 0 0
3.1022 -7.0725 0.76501 255 0 0
-3.6209 -5.0362 0.84127 255 0 0
-3.571 -5.046 0.82375 255 0 0
-3.6208 -1.4533 0.84414 255 0 0
-6.4546 -0.2534 0.76638 255 0 0
-6.4046 -0.23101 0.83962 255 0 0
-6.4134 -16.544 0.91625 255 0 0
-3.577 -13.073 0.96268 255 0 0
-0.77678 -12.956 0.97649 255 0 0
-0.063504 -12.526 0.9732 255 0 0
-0.063556 -12.377 0.97547 255 0 0
-0.063724 -11.92 0.97588 255 0 0
3.4282 -10.206 0.97699 255 0 0
-3.6193 -10.122 0.91341 255 0 0
-3.5728 -10.12 0.98823 255 0 0
-2.3489 -10.097 0.97752 255 0 0
3.4282 -10.19 0.97453 255 0 0
-12.043 -9.9555 0.97304 255 0 0
-6.857 -9.9567 0.97554 255 0 0
-3.2889 -9.9838 0.9802 255 0 0
2.2813 -9.9913 0.98131 255 0 0
3.2545 -10.011 0.96928 255 0 0
-6.4343 -9.8271 0.96878 255 0 0
1.2598 -8.7704 0.90755 255 0 0
0.87729 -8.6536 0.90834 255 0 0
1.3245 -8.5837 0.96153 255 0 0
-6.4694 -8.277 0.98376 255 0 0
-6.4304 -8.293 0.96533 255 0 0
-10.988 -7.9551 0.9717 255 0 0
-10.948 -7.946 0.9725 255 0 0
3.0734 -7.0725 0.98055 255 0 0
-6.4594 -6.2188 0.95144 255 0 0
-6.4243 -6.2318 0.95931 255 0 0
-6.4872 -6.0748 0.97142 255 0 0
-6.493 -5.9266 0.97377 255 0 0
-6.4929 -5.7762 0.97405 255 0 0
-6.4791 -5.6172 0.96618 255 0 0
-6.4893 -5.4755 0.97263 255 0 0
-6.4938 -5.3255 0.97406 255 0 0
-6.4917 -5.1771 0.97289 255 0 0
-6.4927 -5.0247 0.9729 255 0 0
-3.6151 -5.036 0.91647 255 0 0
-6.4935 -4.8721 0.97388 255 0 0
-6.4919 -4.7253 0.97225 255 0 0
-6.4926 -4.5785 0.97299 255 0 0
-6.4941 -4.4263 0.97348 255 0 0
-6.4943 -4.2766 0.97346 255 0 0
-6.4936 -4.1292 0.97318 255 0 0
-6.492 -3.9806 0.97283 255 0 0
-6.494 -3.8274 0.97482 255 0 0
-6.4915 -3.6765 0.97162 255 0 0
-6.4927 -3.5301 0.97281 255 0 0
-6.4915 -3.3821 0.97412 255 0 0
-6.4907 -3.2301 0.97282 255 0 0
-6.4934 -3.0753 0.97401 255 0 0
-6.4918 -2.9246 0.97184 255 0 0
-6.4256 -2.776 0.96521 255 0 0
-2.815 -2.0155 0.98036 255 0 0
-3.6155 -1.4376 0.91859 255 0 0
-3.5756 -1.4776 0.96075 255 0 0
-6.4114 -0.2248 0.91422 255 0 0
-6.4557 -16.434 1.123 255 0 0
-3.5746 -13.063 1.1267 255 0 0
-0.77712 -12.956 1.1253 255 0 0
-0.063505 -12.525 1.1246 255 0 0
-0.063555 -12.378 1.1252 255 0 0
-3.5729 -10.27 1.1251 255 0 0
3.4282 -10.206 1.1211 255 0 0
-3.5728 -10.12 1.125 255 0 0
-2.3489 -10.096 1.1248 255 0 0
3.4282 -10.191 1.1219 255 0 0
-12.043 -9.9555 1.1262 255 0 0
-6.8558 -9.9567 1.1269 255 0 0
-3.2894 -9.9838 1.1247 255 0 0
2.2829 -9.9938 1.1272 255 0 0
3.2511 -10.014 1.1254 255 0 0
-6.4366 -9.8238 1.132 255 0 0
-6.4338 -8.2975 1.124 255 0 0
3.0748 -7.0725 1.1242 255 0 0
-6.4337 -6.2806 1.1254 255 0 0
-3.5711 -5.0606 1.1248 255 0 0
-6.5205 -2.7611 1.1268 255 0 0
-2.8145 -2.0113 1.1262 255 0 0
-3.5708 -1.4843 1.1204 255 0 0
-6.4545 -0.25055 1.1224 255 0 0
-3.5745 -13.063 1.2749 255 0 0
-0.7776 -12.956 1.2741 255 0 0
-0.063503 -12.526 1.276 255 0 0
-0.063556 -12.376 1.2753 255 0 0
-0.063669 -12.07 1.276 255 0 0
-3.5728 -10.271 1.2769 255 0 0
3.4282 -10.206 1.2771 255 0 0
-3.5728 -10.12 1.275 255 0 0
-2.3489 -10.097 1.2749 255 0 0
-12.043 -9.9555 1.2793 255 0 0
-6.8549 -9.9567 1.2751 255 0 0
-3.2891 -9.9838 1.2772 255 0 0
2.2832 -9.9938 1.2758 255 0 0
3.2511 -10.015 1.275 255 0 0
-6.4364 -9.8239 1.2812 255 0 0
-6.4342 -8.2976 1.2843 255 0 0
-11.003 -7.9559 1.2824 255 0 0
3.0748 -7.0725 1.2779 255 0 0
-6.4337 -6.2807 1.2748 255 0 0
-3.5711 -5.0608 1.275 255 0 0
-6.5206 -2.7611 1.2759 255 0 0
-2.8145 -2.0113 1.2777 255 0 0
-3.5708 -1.4843 1.2711 255 0 0
-6.4545 -0.25055 1.2751 255 0 0
-6.4556 -16.268 1.4234 255 0 0
-3.5747 -13.063 1.4259 255 0 0
-0.77717 -12.956 1.4276 255 0 0
-0.063504 -12.525 1.4244 255 0 0
-0.063555 -12.378 1.4252 255 0 0
-3.5726 -10.124 1.4328 255 0 0
-2.3489 -10.097 1.4251 255 0 0
3.4282 -10.191 1.4296 255 0 0
-6.8549 -9.9567 1.4251 255 0 0
-3.2889 -9.9838 1.4255 255 0 0
3.2511 -10.014 1.4253 255 0 0
-6.4364 -9.8236 1.425 255 0 0
-6.4349 -8.2974 1.425 255 0 0
-11.016 -7.9571 1.4238 255 0 0
3.0725 -7.0725 1.4273 255 0 0
-6.4337 -6.2805 1.4255 255 0 0
-3.5711 -5.0602 1.4256 255 0 0
-6.5199 -2.7611 1.4239 255 0 0
-2.8146 -2.0113 1.425 255 0 0
-3.5708 -1.4843 1.4218 255 0 0
-6.4545 -0.25055 1.4277 255 0 0
-6.4556 -16.269 1.574 255 0 0
-3.5745 -13.063 1.5768 255 0 0
-0.80317 -12.896 1.5876 255 0 0
-0.063504 -12.525 1.5745 255 0 0
-0.063556 -12.376 1.5747 255 0 0
-0.063669 -12.071 1.5747 255 0 0
-3.5727 -10.272 1.575 255 0 0
3.4282 -10.206 1.5765 255 0 0
-3.5726 -10.122 1.5759 255 0 0
-2.3489 -10.096 1.5749 255 0 0
-12.045 -9.9555 1.5741 255 0 0
-6.8549 -9.9567 1.575 255 0 0
-3.2888 -9.9838 1.5751 255 0 0
2.2832 -9.9938 1.5749 255 0 0
3.2511 -10.015 1.5749 255 0 0
-6.4364 -9.8237 1.5752 255 0 0
-6.4348 -8.2974 1.5748 255 0 0
-11.006 -7.9575 1.5762 255 0 0
3.0752 -7.0725 1.5744 255 0 0
-6.4337 -6.2808 1.5755 255 0 0
-6.521 -2.7611 1.5764 255 0 0
-2.8145 -2.0113 1.5772 255 0 0
-3.5708 -1.4843 1.5724 255 0 0
-6.4545 -0.25055 1.5804 255 0 0
-6.4556 -16.268 1.7245 255 0 0
-3.5746 -13.063 1.725 255 0 0
-0.79203 -12.915 1.7258 255 0 0
-0.063504 -12.527 1.7241 255 0 0
-0.063555 -12.378 1.7251 255 0 0
-0.063669 -12.071 1.7247 255 0 0
-3.5727 -10.272 1.725 255 0 0
3.4282 -10.206 1.7238 255 0 0
-3.5726 -10.122 1.7247 255 0 0
-2.3489 -10.097 1.7251 255 0 0
-6.8549 -9.9567 1.725 255 0 0
-3.2888 -9.9838 1.725 255 0 0
3.2511 -10.015 1.7252 255 0 0
-6.4364 -9.8236 1.7249 255 0 0
-6.4349 -8.2974 1.7246 255 0 0
-11.002 -7.9586 1.7251 255 0 0
3.0748 -7.0725 1.726 255 0 0
-6.4337 -6.2805 1.7249 255 0 0
-3.5711 -5.0607 1.7241 255 0 0
-6.5206 -2.7611 1.725 255 0 0
-3.5708 -1.4843 1.7231 255 0 0
-6.4556 -16.268 1.8731 255 0 0
-3.5745 -13.063 1.8732 255 0 0
-0.063504 -12.525 1.8748 255 0 0
-0.063557 -12.375 1.8745 255 0 0
-0.063669 -12.071 1.8743 255 0 0
3.4282 -10.206 1.871 255 0 0
-3.5724 -10.126 1.8678 255 0 0
-2.3489 -10.097 1.8752 255 0 0
-12.043 -9.9555 1.8747 255 0 0
-6.8549 -9.9567 1.8751 255 0 0
-3.2889 -9.9838 1.8755 255 0 0
2.2832 -9.9938 1.8761 255 0 0
3.2511 -10.015 1.8758 255 0 0
-6.4364 -9.8237 1.8751 255 0 0
-6.4349 -8.2974 1.8744 255 0 0
-6.4337 -6.2806 1.8749 255 0 0
-3.5711 -5.0607 1.8747 255 0 0
-6.5203 -2.7611 1.8733 255 0 0
-2.8144 -2.0113 1.8728 255 0 0
-3.5708 -1.4843 1.8738 255 0 0
-6.4545 -0.25036 1.8713 255 0 0
-6.4556 -16.269 2.0255 255 0 0
-3.5746 -13.063 2.027 255 0 0
-0.80534 -12.896 2.0511 255 0 0
-0.063555 -12.377 2.0255 255 0 0
-0.063669 -12.07 2.0244 255 0 0
-3.5725 -10.276 2.021 255 0 0
3.4282 -10.206 2.023 255 0 0
-3.5725 -10.123 2.025 255 0 0
-2.3489 -10.097 2.0251 255 0 0
-6.8549 -9.9567 2.0249 255 0 0
-3.2882 -9.9838 2.0134 255 0 0
2.2829 -9.9938 2.0247 255 0 0
3.2511 -10.015 2.0261 255 0 0
-6.4362 -9.8245 2.0205 255 0 0
-6.4353 -8.2973 2.0144 255 0 0
-10.994 -7.9588 2.0274 255 0 0
-10.937 -7.9468 2.0254 255 0 0
3.0767 -7.0725 2.0269 255 0 0
-6.4337 -6.2807 2.0242 255 0 0
-6.521 -2.7611 2.0251 255 0 0
-2.815 -2.0113 2.025 255 0 0
-3.5708 -1.4843 2.0245 255 0 0
-6.4556 -16.267 2.1796 255 0 0
-3.5746 -13.063 2.178 255 0 0
-0.77717 -12.956 2.1719 255 0 0
-0.063504 -12.526 2.1734 255 0 0
-3.5726 -10.274 2.1749 255 0 0
3.4282 -10.206 2.1748 255 0 0
-3.5725 -10.123 2.175 255 0 0
-2.3489 -10.096 2.1749 255 0 0
3.2511 -10.098 2.1749 255 0 0
-12.044 -9.9555 2.1727 255 0 0
-6.8554 -9.9567 2.1742 255 0 0
3.5013 -10.004 2.1755 255 0 0
-6.436 -9.8252 2.1691 255 0 0
-6.4357 -8.2974 2.1749 255 0 0
-10.993 -7.959 2.1754 255 0 0
-10.936 -7.947 2.1805 255 0 0
3.0748 -7.0725 2.1741 255 0 0
-6.4337 -6.2807 2.1743 255 0 0
-3.5711 -5.0604 2.1751 255 0 0
-6.5201 -2.7611 2.1744 255 0 0
-2.8146 -2.0113 2.1738 255 0 0
-3.5708 -1.4843 2.1752 255 0 0
-6.4545 -0.25055 2.172 255 0 0
-6.4556 -16.268 2.3302 255 0 0
-3.5745 -13.063 2.3262 255 0 0
-0.7784 -12.956 2.3178 255 0 0
-0.063516 -12.527 2.3148 255 0 0
-0.063569 -12.377 2.3137 255 0 0
-0.06368 -12.069 2.3138 255 0 0
-3.5726 -10.274 2.3251 255 0 0
-3.5725 -10.123 2.3248 255 0 0
-2.4491 -10.105 2.35 255 0 0
2.7929 -10.07 2.35 255 0 0
2.9276 -10.076 2.35 255 0 0
3.0713 -10.103 2.35 255 0 0
-12.177 -9.9555 2.3214 255 0 0
-6.8586 -9.9567 2.3051 255 0 0
-3.0772 -9.9902 2.3754 255 0 0
-2.7772 -9.9902 2.3744 255 0 0
-2.6268 -9.9914 2.377 255 0 0
-2.4703 -9.9958 2.3733 255 0 0
2.6189 -10.004 2.362 255 0 0
3.244 -10.012 2.3132 255 0 0
3.5022 -10.004 2.3254 255 0 0
-6.4552 -9.6737 2.3922 255 0 0
-6.4339 -9.6749 2.3676 255 0 0
-6.4339 -9.5244 2.367 255 0 0
